ply
format ascii 1.0
element vertex 1248
property float x
property float y
property float z
property uchar red
property uchar green
property uchar blue
end_header
12.6993 -11.4926 29.9257  255 255 255
5.98245 49.9857 -80.5459  255 255 255
2.75782 58.5877 -70.1445  255 255 255
44.0769 68.0352 -93.8134  255 255 255
53.4537 -19.2941 -13.2494  255 255 255
45.509 27.2146 -42.1133  255 255 255
-81.13 18.0889 -43.1218  255 255 255
-55.6606 -49.9455 28.3097  255 255 255
-61.7242 -52.0594 31.7337  255 255 255
53.6957 -20.1847 -13.0268  255 255 255
-6.19155 65.8866 -57.5591  255 255 255
48.5221 34.3327 -30.2264  255 255 255
-55.6606 -49.9455 28.3097  255 255 255
17.1468 67.157 -74.2014  255 255 255
-51.284 -3.24746 -25.578  255 255 255
-17.5615 55.1545 -58.3593  255 255 255
40.0621 77.8043 -83.6016  255 255 255
48.5833 -0.394269 -12.3143  255 255 255
-51.7916 -3.36911 -24.2952  255 255 255
-24.744 -56.1112 32.7403  255 255 255
-45.0044 -27.1224 1.25473  255 255 255
-15.0274 -11.1143 29.9161  255 255 255
-19.727 -24.6945 33.068  255 255 255
-23.9922 -32.8179 23.4076  255 255 255
-57.432 -17.1215 -9.28934  255 255 255
-62.3216 -7.24376 -20.7377  255 255 255
22.1566 20.9368 -57.3584  255 255 255
49.7737 -14.3874 -18.5587  255 255 255
-45.1812 -6.78027 -21.703  255 255 255
45.5539 27.2613 -42.3505  255 255 255
6.81604 -29.5366 36.2406  255 255 255
-21.633 -22.4762 30.6067  255 255 255
-26.29 -52.9428 29.4454  255 255 255
-56.249 -21.7216 -5.07448  255 255 255
-31.618 -51.0146 27.5634  255 255 255
-19.8887 -59.3188 36.101  255 255 255
-24.5781 -55.7447 32.443  255 255 255
-33.6367 -51.7606 28.6084  255 255 255
-29.5053 -53.2055 29.742  255 255 255
-27.8397 -53.6556 30.2522  255 255 255
46.3145 -48.7217 18.9857  255 255 255
-44.8677 40.2588 -50.0066  255 255 255
0.740348 -32.349 37.8859  255 255 255
-1.93792 -18.967 35.9606  255 255 255
-30.8589 57.6871 -45.5849  255 255 255
-15.886 -15.6388 29.997  255 255 255
32.1643 72.0803 -81.7215  255 255 255
-52.8952 -6.80274 -21.5278  255 255 255
4.16986 -6.25732 32.0481  255 255 255
-6.8715 -5.91972 32.2162  255 255 255
-45.6648 -26.8538 1.08574  255 255 255
23.252 -18.2065 21.9517  255 255 255
41.8949 62.5176 -97.1877  255 255 255
-15.8625 -14.4015 29.8351  255 255 255
-60.4876 -3.36374 -24.3796  255 255 255
49.0118 7.19289 -5.48688  255 255 255
33.5029 70.9555 -83.5158  255 255 255
50.1299 21.8988 -34.4874  255 255 255
40.4656 -31.8429 0.24355  255 255 255
48.2232 -12.5199 -20.8523  255 255 255
-2.42658 -11.9449 35.6673  255 255 255
-40.4187 -37.7679 12.8924  255 255 255
2.51608 -47.3606 30.6858  255 255 255
53.7528 -20.1907 -13.0687  255 255 255
14.2843 65.3599 -74.2699  255 255 255
3.64832 -8.33402 33.6962  255 255 255
49.6851 23.7462 -34.4131  255 255 255
0.398146 -24.5594 35.8174  255 255 255
2.3913 50.2722 -77.9843  255 255 255
-10.317 -0.614407 26.0137  255 255 255
49.7451 -5.67782 -13.0681  255 255 255
-77.7721 11.5413 -41.0298  255 255 255
-48.001 41.5816 -47.022  255 255 255
-33.8975 24.467 -57.7593  255 255 255
48.0756 35.0591 -75.7845  255 255 255
-47.4894 30.1077 -58.997  255 255 255
0.524535 60.0577 -67.8457  255 255 255
49.1844 67.7896 -97.9141  255 255 255
51.0377 66.3992 -100.133  255 255 255
-1.97068 58.9774 -67.102  255 255 255
-33.9093 47.6723 -52.3525  255 255 255
-13.328 51.6822 -64.8488  255 255 255
26.9556 58.3677 -90.366  255 255 255
-33.2802 34.3836 -65.1156  255 255 255
-48.3236 29.24 -59.7312  255 255 255
25.8026 54.9845 -91.5189  255 255 255
-53.9748 39.4812 -43.9533  255 255 255
28.7851 61.8223 -88.2562  255 255 255
26.9565 58.3681 -90.3559  255 255 255
-7.31945 49.1344 -71.4461  255 255 255
-35.396 16.8769 -49.3838  255 255 255
19.4447 57.4311 -85.2544  255 255 255
-27.1923 48.3449 -56.1562  255 255 255
45.2539 60.9268 -100.894  255 255 255
-5.14265 59.0511 -64.4408  255 255 255
24.7094 54.2617 -91.2838  255 255 255
3.81512 53.3789 -76.0284  255 255 255
-54.161 41.484 -41.5787  255 255 255
-15.4418 54.7439 -60.4453  255 255 255
-22.2622 54.6124 -55.0018  255 255 255
-15.5225 53.7878 -61.0829  255 255 255
-13.2601 57.5795 -59.4203  255 255 255
28.8546 62.6561 -86.8307  255 255 255
49.9045 62.3985 -103.526  255 255 255
45.2576 64.4131 -97.8159  255 255 255
-26.4421 51.9504 -54.3699  255 255 255
-17.6078 53.954 -59.3135  255 255 255
-24.4084 51.6193 -56.126  255 255 255
-29.6105 45.4989 -57.6548  255 255 255
-37.1562 33.1953 -63.3873  255 255 255
-66.2459 42.5842 -31.2916  255 255 255
35.1187 74.6226 -81.7232  255 255 255
18.5867 50.0865 -89.4245  255 255 255
50.1129 62.962 -102.849  255 255 255
1.00582 59.8668 -68.4437  255 255 255
48.9617 60.576 -103.777  255 255 255
13.5128 -17.372 30.1956  255 255 255
-24.0771 53.9973 -54.0946  255 255 255
49.9234 -7.78465 -14.0422  255 255 255
48.009 -5.90954 -17.2318  255 255 255
52.5184 -18.622 -15.0757  255 255 255
23.8053 -18.8639 22.5326  255 255 255
-27.4968 -14.5861 21.9943  255 255 255
21.4099 -20.9032 25.0909  255 255 255
47.2055 -2.59007 -16.9629  255 255 255
-1.77428 -20.2744 35.6425  255 255 255
52.307 -16.9481 -14.2076  255 255 255
-58.3626 -13.3321 -13.8296  255 255 255
-21.7156 -4.78498 14.732  255 255 255
-26.1858 -10.5611 17.0499  255 255 255
10.5318 -2.80803 25.7876  255 255 255
-6.16721 -9.20341 33.6744  255 255 255
-4.65323 -30.9582 39.0019  255 255 255
12.0697 -4.44405 26.0862  255 255 255
22.1331 -19.3483 23.2691  255 255 255
12.0862 -23.0238 32.636  255 255 255
11.7649 -6.83095 28.6987  255 255 255
12.326 -21.8817 31.4948  255 255 255
6.50216 -31.581 38.4383  255 255 255
-18.6641 -25.1148 33.3866  255 255 255
10.5804 -23.3536 33.224  255 255 255
-6.55689 -7.13835 32.8541  255 255 255
7.22688 -17.8323 34.2056  255 255 255
-27.8146 -52.1231 28.4921  255 255 255
7.98778 -17.8872 33.8505  255 255 255
-22.6635 -8.03219 18.8063  255 255 255
3.95372 -9.64388 34.1856  255 255 255
18.6726 -25.5587 30.569  255 255 255
6.98718 -24.4275 34.9858  255 255 255
12.1151 -7.42601 28.6419  255 255 255
19.6335 17.648 -53.1645  255 255 255
19.0341 -17.7503 26.1669  255 255 255
-7.35973 -23.6017 35.372  255 255 255
-46.8867 12.1478 -44.4046  255 255 255
10.5828 -2.01466 24.9495  255 255 255
15.1456 -11.4336 27.606  255 255 255
-54.8073 -27.5254 2.22692  255 255 255
2.8174 -7.61637 33.4153  255 255 255
0.843034 -30.4244 37.7321  255 255 255
5.07902 -10.2573 33.87  255 255 255
-5.46527 -28.8816 36.6518  255 255 255
3.01472 -11.5374 35.0258  255 255 255
-41.0324 16.0684 -47.6772  255 255 255
5.46911 -6.63803 32.1223  255 255 255
11.3409 -8.86917 29.8483  255 255 255
12.8662 -22.0508 31.8154  255 255 255
12.2433 -9.06063 29.2924  255 255 255
-15.5868 -26.9191 35.3202  255 255 255
-6.46253 -29.5288 37.5182  255 255 255
-22.5888 -31.3608 26.4273  255 255 255
-24.4882 -19.0109 27.0684  255 255 255
5.17379 -24.8778 35.8259  255 255 255
8.33221 -10.7998 32.5612  255 255 255
12.5057 -4.88563 25.9755  255 255 255
0.976119 -23.8269 34.9986  255 255 255
8.29406 -6.91239 30.6681  255 255 255
10.0885 -8.6311 30.806  255 255 255
20.7929 -21.1881 25.3833  255 255 255
9.24778 -12.8674 32.7278  255 255 255
14.8341 -17.0315 28.983  255 255 255
9.00125 -26.1534 33.9624  255 255 255
21.2351 -20.0148 24.234  255 255 255
-2.50207 -29.4622 37.0385  255 255 255
10.6448 -23.0786 32.9339  255 255 255
6.52087 -22.2254 33.4976  255 255 255
-4.23311 -24.007 35.6798  255 255 255
23.3848 -22.5072 26.0547  255 255 255
7.20525 -11.4291 33.4053  255 255 255
-27.3873 -51.7852 28.3  255 255 255
6.54466 -24.4884 34.9583  255 255 255
-13.3818 -35.0925 31.906  255 255 255
13.9489 -14.0965 29.5829  255 255 255
6.82916 -23.8853 34.3625  255 255 255
6.50216 -31.581 38.4383  255 255 255
12.8531 -3.60007 24.2001  255 255 255
14.8511 -17.0211 28.8515  255 255 255
-7.48878 -29.1297 36.9404  255 255 255
-23.8621 -23.0919 31.5689  255 255 255
-27.4506 -52.0015 28.3846  255 255 255
14.4657 -28.0922 33.8198  255 255 255
-3.31389 -29.474 37.1911  255 255 255
-1.68129 -24.6913 36.1666  255 255 255
22.8083 -21.3539 25.2966  255 255 255
13.6655 -6.56542 26.4828  255 255 255
-4.23311 -24.007 35.6798  255 255 255
19.9632 -14.6331 22.5289  255 255 255
15.0818 -15.6355 28.5174  255 255 255
-22.5233 -22.3931 30.4533  255 255 255
9.50177 -0.418864 23.2154  255 255 255
-28.2686 -52.2053 28.5816  255 255 255
18.253 -17.7932 26.2646  255 255 255
14.8699 -6.06913 24.2075  255 255 255
15.6732 -8.28451 24.8953  255 255 255
2.10611 -14.5778 35.8062  255 255 255
12.1932 -5.72214 26.9768  255 255 255
19.636 -6.19197 11.856  255 255 255
0.537783 -25.0426 36.402  255 255 255
7.08716 -29.9831 36.7332  255 255 255
24.2203 -18.4845 22.091  255 255 255
-18.1381 -24.5655 32.7399  255 255 255
-12.217 -21.8212 33.8315  255 255 255
21.2351 -20.0148 24.234  255 255 255
-2.36675 -29.6958 37.2708  255 255 255
-48.9412 -10.1529 -17.6645  255 255 255
14.5903 -11.2807 28.3658  255 255 255
15.3335 -13.7303 28.0812  255 255 255
23.0818 -23.9947 28.0903  255 255 255
10.5568 -29.5412 35.8179  255 255 255
-4.82 -29.8076 37.4389  255 255 255
-23.9248 -22.4601 30.9866  255 255 255
8.65851 -7.34379 31.1271  255 255 255
13.1629 -9.18066 28.7456  255 255 255
12.1151 -7.42601 28.6419  255 255 255
5.75333 -29.4431 36.0105  255 255 255
18.1189 -18.0895 26.7008  255 255 255
8.651 -7.33944 31.1805  255 255 255
23.0296 -20.1077 23.9832  255 255 255
15.7576 -27.0074 32.6057  255 255 255
-2.72031 -33.8065 37.0436  255 255 255
2.44881 -32.4094 37.698  255 255 255
-5.53713 -18.3699 35.6223  255 255 255
-12.3168 -19.7547 32.4747  255 255 255
12.9816 -15.6008 30.7589  255 255 255
6.05596 -14.4861 34.8415  255 255 255
47.0555 8.92258 -10.034  255 255 255
-5.72465 -23.3358 34.712  255 255 255
17.0874 -26.3627 31.7664  255 255 255
-69.5609 -44.9322 23.5223  255 255 255
23.851 -34.7543 18.9914  255 255 255
16.0221 -29.0101 34.7595  255 255 255
-9.33299 -23.0464 35.0201  255 255 255
50.6547 -7.90501 -12.5056  255 255 255
8.53134 -3.58398 28.3877  255 255 255
16.0399 -27.655 33.297  255 255 255
24.7894 -14.9211 17.9169  255 255 255
-7.59324 -22.6208 34.2825  255 255 255
18.8015 -17.6868 25.8609  255 255 255
24.6984 -8.67033 10.3997  255 255 255
2.82909 -29.4863 36.4289  255 255 255
18.5111 -35.1077 24.8352  255 255 255
2.07946 -24.7831 35.898  255 255 255
-17.8987 -25.4627 33.6858  255 255 255
-64.4393 -9.77423 -17.7771  255 255 255
15.2464 -10.6415 27.2753  255 255 255
12.5545 -33.5729 31.8202  255 255 255
6.54116 -12.2771 33.8729  255 255 255
4.74566 -19.7221 34.8183  255 255 255
-21.8582 -8.44518 19.1207  255 255 255
-30.5043 20.2762 -53.2643  255 255 255
10.6709 -8.89149 30.2691  255 255 255
-1.43638 -34.3657 36.0713  255 255 255
-6.64917 -30.2018 38.1377  255 255 255
53.4216 -15.1527 -11.0632  255 255 255
48.406 -12.8017 -19.3661  255 255 255
10.1324 -22.3424 32.2604  255 255 255
22.868 -23.5222 27.7045  255 255 255
10.9385 -13.5313 32.1427  255 255 255
47.0437 8.91533 -9.95231  255 255 255
16.0297 -20.2974 29.5221  255 255 255
56.3889 -15.3596 -4.54809  255 255 255
-38.0741 -51.8928 28.8352  255 255 255
13.9906 -13.0872 29.4172  255 255 255
10.3116 -32.6106 34.6504  255 255 255
-16.8417 -16.0244 28.8414  255 255 255
14.6532 -16.5211 29.0479  255 255 255
10.8952 -5.37207 28.2041  255 255 255
23.4563 -19.3568 23.1863  255 255 255
10.8952 -5.37207 28.2041  255 255 255
-33.3453 -48.7187 24.7839  255 255 255
-26.1412 -5.80557 11.8306  255 255 255
-31.6528 22.083 -55.2731  255 255 255
-10.1433 -22.7783 34.7545  255 255 255
11.1622 -10.2387 30.8246  255 255 255
3.95238 -13.943 34.7403  255 255 255
2.70379 -13.967 35.1158  255 255 255
9.48178 -9.90634 31.4999  255 255 255
-1.16234 -29.6393 37.1932  255 255 255
22.2853 -31.9289 21.0627  255 255 255
23.4661 -18.4832 22.2071  255 255 255
15.1683 -15.2433 28.2032  255 255 255
-65.3733 -8.56567 -19.8657  255 255 255
-11.2406 -22.1154 34.1975  255 255 255
23.2963 -17.854 21.5166  255 255 255
-0.276511 -30.5275 38.0274  255 255 255
16.6275 -25.1875 30.6068  255 255 255
7.53781 -13.9917 33.8075  255 255 255
7.00834 -17.1058 34.397  255 255 255
26.5471 -16.0248 18.3149  255 255 255
15.3784 -15.7503 28.2727  255 255 255
22.7375 -23.3518 27.531  255 255 255
-4.31123 -7.73304 33.8311  255 255 255
7.19432 -23.8 34.035  255 255 255
6.13699 -45.6782 30.585  255 255 255
-5.90265 -24.0233 35.9192  255 255 255
-9.18207 -29.2764 37.3549  255 255 255
-3.27706 -13.1708 35.7304  255 255 255
13.4396 -15.5433 30.2594  255 255 255
6.32195 -23.9065 34.5081  255 255 255
-10.6078 -26.3893 34.6759  255 255 255
10.6709 -8.89149 30.2691  255 255 255
-22.6324 -6.60071 16.9592  255 255 255
6.08685 -24.0637 34.8952  255 255 255
20.9116 19.5941 -56.0023  255 255 255
50.0385 1.57349 -7.4584  255 255 255
49.9874 1.56057 -7.30762  255 255 255
3.96603 2.6769 21.8456  255 255 255
3.33812 2.50708 21.6167  255 255 255
-0.0599737 2.61331 20.8907  255 255 255
-0.0530944 2.1877 20.1031  255 255 255
48.7963 0.0145407 -11.8723  255 255 255
-1.00934 -8.6771 34.6022  255 255 255
54.2154 -18.796 -11.2252  255 255 255
6.48496 -13.6072 34.2972  255 255 255
2.50117 -14.57 35.6752  255 255 255
-66.0238 -8.90652 -18.5417  255 255 255
3.81134 -27.1105 35.8559  255 255 255
-17.5391 -25.3716 33.6441  255 255 255
41.5723 -44.6018 14.896  255 255 255
41.4315 -49.2178 23.0701  255 255 255
2.65426 2.71217 21.4028  255 255 255
5.39561 1.5268 22.1988  255 255 255
-2.94262 1.25226 23.7641  255 255 255
-5.12695 1.48337 23.0181  255 255 255
21.2443 -3.21812 4.19757  255 255 255
24.8494 -9.16229 10.9108  255 255 255
5.49221 -8.80583 33.2256  255 255 255
54.5631 -13.5134 -7.21697  255 255 255
48.5225 -12.4399 -20.3539  255 255 255
-43.3819 -6.90994 -21.6286  255 255 255
54.7388 -20.1008 -11.4009  255 255 255
7.95865 -24.2297 34.6178  255 255 255
-12.8707 -26.7281 34.8201  255 255 255
47.6452 -40.1964 9.22483  255 255 255
35.7273 -51.1993 23.7169  255 255 255
-34.3413 -48.9588 25.1889  255 255 255
-8.49983 -2.51531 28.9749  255 255 255
54.9895 -18.9652 -9.81007  255 255 255
-35.3812 -48.8692 25.1489  255 255 255
-33.3887 12.2995 -45.3598  255 255 255
55.2679 -28.7461 -3.96478  255 255 255
45.1592 -40.5558 9.9972  255 255 255
51.2671 -10.7941 -12.5581  255 255 255
-15.8003 -8.26453 28.0875  255 255 255
-10.7584 -10.7443 32.6689  255 255 255
2.41298 -16.3742 35.9724  255 255 255
-4.57854 1.27175 22.9345  255 255 255
3.84281 -21.0415 34.6895  255 255 255
12.6861 -23.7904 32.6938  255 255 255
-30.3751 -50.5543 27.1194  255 255 255
-14.9809 -13.6708 30.513  255 255 255
8.74377 -15.8879 33.6139  255 255 255
-62.7468 -11.3984 -15.9661  255 255 255
-79.0623 30.4802 -31.5981  255 255 255
-71.8585 32.1608 -35.7664  255 255 255
-54.8887 -22.7414 -2.74877  255 255 255
-42.3075 -5.04246 -24.2465  255 255 255
-7.18996 -25.3709 36.2429  255 255 255
57.3353 -24.9643 -8.69064  255 255 255
-11.0239 -19.8344 33.2946  255 255 255
-5.69204 -18.958 35.7602  255 255 255
50.6957 1.1024 -6.25676  255 255 255
-8.40613 -21.1486 34.195  255 255 255
-8.95265 -15.4214 34.5399  255 255 255
-11.9437 -20.4045 32.6035  255 255 255
52.6795 -10.9413 -9.00229  255 255 255
47.9843 12.15 -6.07683  255 255 255
51.4978 18.8921 -33.9795  255 255 255
53.0838 -13.3572 -10.6592  255 255 255
-6.34775 -11.2619 34.5795  255 255 255
54.054 -13.7756 -8.33949  255 255 255
-16.8371 54.2005 -59.8577  255 255 255
-9.78994 27.3775 -62.3309  255 255 255
-21.2105 9.19564 -41.2904  255 255 255
-34.4196 9.86833 -41.1565  255 255 255
-33.396 8.424 -38.1647  255 255 255
-3.64373 -7.64023 33.8797  255 255 255
-27.082 53.9227 -53.004  255 255 255
33.6276 67.3578 -86.6848  255 255 255
0.920968 -8.14938 34.1196  255 255 255
-21.4346 10.6948 -42.8074  255 255 255
-40.7865 37.4024 -56.1107  255 255 255
-40.9666 15.3376 -47.4433  255 255 255
-16.2213 -15.7775 29.4977  255 255 255
-5.45494 -16.8304 35.4743  255 255 255
-10.4124 45.4925 -72.3957  255 255 255
0.0632805 -11.9649 35.5996  255 255 255
-10.4651 -8.99401 32.3215  255 255 255
-31.8775 9.09978 -39.9493  255 255 255
-14.4049 -16.8222 31.3095  255 255 255
-74.4028 11.3347 -40.5066  255 255 255
-105.451 -11.2373 -12.1654  255 255 255
-106.184 -12.1686 -12.4055  255 255 255
-69.6748 4.10057 -33.7387  255 255 255
0.544192 -14.2938 35.9623  255 255 255
-9.28809 -2.05667 27.8633  255 255 255
-19.1355 21.4073 -55.1497  255 255 255
-22.5819 -1.48638 6.50622  255 255 255
-5.162 -14.5858 35.6528  255 255 255
-6.21087 -13.4857 35.1924  255 255 255
-7.56269 -18.2704 35.0137  255 255 255
-5.4513 -16.8197 35.741  255 255 255
-45.6025 40.0704 -49.7007  255 255 255
-10.1074 -16.9316 34.0181  255 255 255
-38.3816 14.0622 -46.249  255 255 255
-38.335 14.0365 -46.2186  255 255 255
3.15032 -15.0126 35.6844  255 255 255
4.7507 -16.5216 35.2415  255 255 255
-2.71977 -20.2876 35.771  255 255 255
26.3028 58.3666 -89.4812  255 255 255
-28.627 -9.81123 16.5137  255 255 255
-13.5398 -9.23656 30.4498  255 255 255
3.59668 -22.5233 34.3751  255 255 255
51.1224 65.9684 -100.632  255 255 255
-8.7267 -21.8838 33.8163  255 255 255
-14.3556 -7.18501 28.7071  255 255 255
2.75537 -17.3832 36.1122  255 255 255
4.11491 -19.957 34.8304  255 255 255
-13.4531 -19.4285 31.8293  255 255 255
56.8794 -17.109 -4.30161  255 255 255
-21.6024 53.6512 -56.35  255 255 255
-22.4649 -8.6125 19.2793  255 255 255
-6.44439 -23.6148 35.3803  255 255 255
-0.671807 -7.8299 33.9842  255 255 255
44.2136 -50.0226 20.7157  255 255 255
-24.4394 53.4606 -54.2667  255 255 255
-1.27019 -7.62322 33.9559  255 255 255
7.30534 -15.5185 34.0427  255 255 255
13.4407 -21.893 31.3964  255 255 255
-29.6454 37.5764 -64.6559  255 255 255
-29.7525 26.1527 -59.9331  255 255 255
-4.42729 -17.3941 35.8149  255 255 255
7.23258 -15.0642 34.084  255 255 255
3.00607 -17.8759 35.6093  255 255 255
49.5189 0.576465 -9.56224  255 255 255
52.4848 -5.45772 -6.73074  255 255 255
56.5848 -15.5115 -4.19996  255 255 255
-9.20867 -18.3282 34.3827  255 255 255
-6.82558 -22.8824 34.5749  255 255 255
-17.3446 -24.8174 33.1947  255 255 255
-3.00917 -24.1644 35.7307  255 255 255
50.2704 -2.55035 -9.87919  255 255 255
7.11384 -20.5059 33.8178  255 255 255
-22.9213 -23.3675 31.8145  255 255 255
47.0432 8.31681 -9.35962  255 255 255
5.69742 -19.1107 34.8888  255 255 255
-8.67877 -7.96824 32.4766  255 255 255
49.3384 6.61783 -6.00002  255 255 255
2.82519 -31.0017 38.1313  255 255 255
-73.2767 29.5353 -43.9301  255 255 255
-85.5653 32.041 -25.249  255 255 255
-85.4302 32.1054 -27.2373  255 255 255
-75.7016 29.3639 -42.3358  255 255 255
-29.4763 -9.84802 16.5292  255 255 255
19.3879 33.9308 -72.2615  255 255 255
18.14 32.3362 -70.0635  255 255 255
25.424 10.1807 -45.2034  255 255 255
8.32648 -9.31266 32.0183  255 255 255
8.33599 -9.31242 31.9372  255 255 255
10.9725 -10.5801 31.0774  255 255 255
8.74499 -12.9064 33.0869  255 255 255
7.09881 -14.3489 34.0825  255 255 255
13.0499 -15.9612 30.594  255 255 255
5.4464 -17.5322 34.9621  255 255 255
4.74545 -20.2307 34.7751  255 255 255
24.116 -16.8939 20.2703  255 255 255
-16.5896 -26.2053 34.3989  255 255 255
12.6076 -23.1823 32.858  255 255 255
17.0536 -25.5495 30.7987  255 255 255
-27.8312 -55.9967 32.6082  255 255 255
-28.7437 -57.0951 33.9929  255 255 255
48.3427 20.264 -40.0472  255 255 255
38.8425 -34.6557 3.51896  255 255 255
-0.546894 -7.79529 33.8928  255 255 255
20.5158 -22.1744 26.3718  255 255 255
22.9597 -23.0338 27.6722  255 255 255
5.44742 -10 33.7436  255 255 255
5.63249 -10.9309 34.0152  255 255 255
4.71651 -12.2574 34.3483  255 255 255
3.75409 -7.01974 32.7867  255 255 255
13.6074 -10.3661 28.9999  255 255 255
-1.97687 -20.0467 35.683  255 255 255
-3.96451 -7.71161 33.9148  255 255 255
6.69045 -15.4563 34.4484  255 255 255
5.3138 -12.5473 34.6402  255 255 255
10.4717 -12.7802 31.9241  255 255 255
0.414349 -15.1706 36.0714  255 255 255
-1.74995 -18.3572 35.9977  255 255 255
-7.35658 -22.354 34.1908  255 255 255
-31.3705 19.038 -51.9625  255 255 255
-6.74437 -17.5293 35.3196  255 255 255
-74.0375 4.39507 -32.7924  255 255 255
-14.7059 -27.2 35.5922  255 255 255
-12.7077 -27.8817 35.9372  255 255 255
-26.0915 -17.94 26.2413  255 255 255
-51.599 -6.59745 -21.5292  255 255 255
-73.8785 -57.5488 40.8112  255 255 255
-45.1356 -10.7877 -17.2274  255 255 255
-71.452 4.47454 -33.5399  255 255 255
-51.7572 -5.97764 -22.305  255 255 255
-74.7602 -51.6603 30.6443  255 255 255
10.6668 -10.0689 31.11  255 255 255
0.115406 61.0601 -66.5908  255 255 255
4.63634 -17.2822 35.1418  255 255 255
-81.101 23.0449 -38.0647  255 255 255
0.476073 61.2788 -66.3781  255 255 255
14.7846 -27.4489 33.0717  255 255 255
-4.42321 -30.4645 38.2431  255 255 255
-43.5767 47.9656 -44.4089  255 255 255
-28.0914 15.3425 -47.3831  255 255 255
-1.98345 -20.0339 35.7217  255 255 255
-18.7526 -56.6493 33.0007  255 255 255
-3.17145 64.0811 -60.6526  255 255 255
-17.533 -22.1344 31.7034  255 255 255
-5.7704 -10.4841 34.7519  255 255 255
51.9708 -17.1709 -15.3207  255 255 255
-34.0865 -52.0404 28.6724  255 255 255
-19.2848 -59.4377 36.6751  255 255 255
28.5438 58.3625 -91.0781  255 255 255
26.2376 57.3012 -90.3386  255 255 255
-23.7664 53.8554 -54.2786  255 255 255
-27.8337 52.7795 -52.7037  255 255 255
47.8606 22.5899 -39.0782  255 255 255
4.40282 -14.0416 35.3295  255 255 255
-5.8875 -18.4312 35.5515  255 255 255
-20.5962 -58.609 35.2504  255 255 255
1.00728 59.8651 -68.4465  255 255 255
-15.8654 55.4391 -59.1614  255 255 255
-15.864 55.5054 -59.3792  255 255 255
21.2821 53.7203 -89.9349  255 255 255
43.3278 36.6575 -77.0067  255 255 255
22.7314 -22.9689 27.2103  255 255 255
-11.8973 -21.8062 33.9135  255 255 255
0.178687 22.9064 -58.7263  255 255 255
-4.79393 16.5089 -50.501  255 255 255
-15.5733 -13.9462 30.0294  255 255 255
-17.2763 -18.8284 30.8676  255 255 255
-77.1826 -45.2487 24.0986  255 255 255
5.03774 55.4372 -75.5281  255 255 255
-23.3257 55.1267 -54.1057  255 255 255
-46.7231 42.4113 -46.824  255 255 255
50.301 -38.8655 7.77659  255 255 255
49.3656 -38.1926 6.97286  255 255 255
-43.7304 48.1518 -43.8979  255 255 255
-53.827 -3.56435 -24.7234  255 255 255
6.47032 -14.165 34.4214  255 255 255
-60.6753 -12.3 -14.7251  255 255 255
20.6314 46.9546 -86.6103  255 255 255
46.8094 23.9296 -41.2749  255 255 255
-3.53652 -5.89477 32.8375  255 255 255
-12.0567 -4.57439 28.5444  255 255 255
-2.11319 -8.0622 34.2235  255 255 255
-2.11319 -8.0622 34.2235  255 255 255
0.466662 -8.82311 34.4979  255 255 255
11.8823 -13.9568 31.3336  255 255 255
51.4776 -16.2033 -16.026  255 255 255
4.02574 -13.1384 35.0301  255 255 255
51.9689 -17.1715 -15.2403  255 255 255
-2.27709 -13.0779 35.8496  255 255 255
13.4346 -16.169 30.2918  255 255 255
48.8332 -18.3607 -14.0204  255 255 255
17.0397 -18.9821 27.8582  255 255 255
1.50082 -16.8277 35.9441  255 255 255
22.7405 -22.6042 26.7048  255 255 255
17.807 -23.129 28.1517  255 255 255
-21.6622 -12.937 24.4476  255 255 255
3.75044 -21.9385 34.5062  255 255 255
1.45148 -21.502 35.0738  255 255 255
-19.9221 -15.3674 27.0497  255 255 255
-19.9262 -15.3624 27.134  255 255 255
-2.64723 -22.2591 35.0484  255 255 255
-15.1188 -19.6228 31.699  255 255 255
-8.87188 -21.6007 33.847  255 255 255
-23.2166 -22.302 30.5564  255 255 255
-17.1533 -24.3263 32.3982  255 255 255
-17.9082 -25.1518 33.4802  255 255 255
-14.825 -28.2888 36.8304  255 255 255
-4.7118 -31.6838 39.5678  255 255 255
52.4096 -2.27153 -4.60696  255 255 255
53.7685 -18.5567 -10.9206  255 255 255
57.6007 -20.9295 -3.63134  255 255 255
51.2744 -17.5467 -16.1678  255 255 255
4.95949 -16.0548 35.1568  255 255 255
17.975 -24.1896 29.4394  255 255 255
-14.9548 -21.7126 33.7267  255 255 255
13.0211 -33.656 31.4704  255 255 255
-19.0518 -25.1199 33.3978  255 255 255
47.6038 9.61132 -8.54567  255 255 255
51.6829 -5.97463 -8.86672  255 255 255
51.5197 -13.0325 -12.2139  255 255 255
53.1789 -18.9352 -13.5769  255 255 255
-2.34178 -18.4446 35.8696  255 255 255
-22.2134 -24.1875 32.307  255 255 255
6.60219 -57.5073 31.7052  255 255 255
50.2952 -6.79498 -12.7176  255 255 255
50.4984 -9.05046 -13.8439  255 255 255
-17.4245 -17.8705 29.9949  255 255 255
-15.7378 -18.3751 30.3042  255 255 255
-10.9578 -22.7989 34.8323  255 255 255
-19.5181 -22.4903 30.4459  255 255 255
44.2545 -47.1999 18.215  255 255 255
35.4463 -46.9822 18.2808  255 255 255
51.5106 18.7987 -33.2113  255 255 255
-7.80439 -23.5339 35.4108  255 255 255
41.3558 -42.4102 12.1713  255 255 255
36.8093 -49.2046 20.8182  255 255 255
-4.2725 -22.9285 34.7696  255 255 255
-11.1144 -29.2096 37.6705  255 255 255
-24.9905 52.9986 -54.4992  255 255 255
23.5876 60.3342 -85.6648  255 255 255
42.8567 61.0178 -99.1146  255 255 255
-1.04816 59.2277 -67.6624  255 255 255
43.6767 72.4473 -88.8111  255 255 255
-44.2899 -26.9712 0.457179  255 255 255
49.3039 -7.7571 -15.636  255 255 255
1.44197 -13.6414 35.7779  255 255 255
-14.2413 -24.7583 33.4074  255 255 255
49.9307 -11.4564 -16.4308  255 255 255
51.0366 -15.8427 -17.4118  255 255 255
-69.8076 19.4504 -50.4649  255 255 255
51.169 -16.7375 -16.5029  255 255 255
-62.097 -11.3241 -15.4007  255 255 255
-28.0616 -54.4177 30.934  255 255 255
-30.4381 -56.1627 33.1949  255 255 255
54.7017 -13.401 -6.23644  255 255 255
53.5881 -15.6437 -10.5866  255 255 255
58.4939 -26.5877 -6.92083  255 255 255
-12.5592 -20.5721 32.4569  255 255 255
52.6496 -42.0279 10.7576  255 255 255
-29.0618 -55.9911 32.7306  255 255 255
51.1943 20.395 -32.7765  255 255 255
53.3195 -7.39735 -6.05253  255 255 255
47.5242 -42.8275 13.3469  255 255 255
-9.55139 -17.4706 34.1256  255 255 255
47.7762 25.2374 -39.4293  255 255 255
5.07663 -14.657 35.0682  255 255 255
-7.11124 -8.13392 33.3646  255 255 255
-8.14171 -13.5533 34.753  255 255 255
35.9222 -43.5999 14.0917  255 255 255
-14.0038 -26.0792 34.0711  255 255 255
52.0995 15.5999 -33.5245  255 255 255
50.1296 -14.4838 -17.2442  255 255 255
58.6136 -25.9426 -6.10162  255 255 255
-11.0237 -19.4655 33.2912  255 255 255
-3.87009 -22.3698 34.9776  255 255 255
-2.22362 -19.5867 35.827  255 255 255
50.3647 -13.8487 -16.1139  255 255 255
20.9995 65.0658 -78.568  255 255 255
-9.2536 60.0994 -59.4437  255 255 255
33.1225 74.9414 -80.3857  255 255 255
28.7241 62.2067 -87.6266  255 255 255
45.7768 24.529 -42.7594  255 255 255
53.8084 -11.8433 -7.69249  255 255 255
12.2076 -10.9818 30.3349  255 255 255
4.81544 -12.785 34.8515  255 255 255
-6.08091 -15.3241 35.5143  255 255 255
2.96676 -19.9213 35.2905  255 255 255
13.0095 -22.5605 32.1821  255 255 255
-25.4355 -19.6616 27.9146  255 255 255
27.8672 61.5815 -87.696  255 255 255
49.7885 20.5921 -35.9186  255 255 255
-27.9588 39.7241 -64.1225  255 255 255
5.94133 -12.4821 34.2929  255 255 255
52.3161 -17.6879 -15.1422  255 255 255
-8.31531 -11.9089 34.3282  255 255 255
4.92755 -15.4171 35.1384  255 255 255
10.1671 -25.04 33.6618  255 255 255
-6.8891 -30.6696 38.4968  255 255 255
45.023 62.8804 -98.6286  255 255 255
4.52813 1.17823 21.9411  255 255 255
6.66487 0.0946249 23.8401  255 255 255
13.1402 -13.6297 30.1622  255 255 255
-5.87515 -13.0587 35.3017  255 255 255
-10.1069 -13.0726 33.8398  255 255 255
-2.33147 -18.4611 36.0234  255 255 255
45.2917 73.0813 -89.6319  255 255 255
8.86432 59.7311 -66.9808  255 255 255
8.05353 -3.28984 28.34  255 255 255
49.6078 -6.59806 -14.6988  255 255 255
50.2861 -12.8129 -16.34  255 255 255
46.3437 26.9776 -39.4586  255 255 255
-18.1946 -10.7939 26.388  255 255 255
-0.46596 -16.5429 36.0451  255 255 255
-28.6526 47.3105 -56.8473  255 255 255
50.3299 19.4556 -35.6375  255 255 255
47.2294 -0.0957492 -15.7852  255 255 255
-2.38738 -23.6818 35.0288  255 255 255
-31.815 -55.686 32.7364  255 255 255
-1.87424 -10.3337 35.3692  255 255 255
53.0984 -9.13563 -7.55778  255 255 255
-3.43285 -10.3367 35.0433  255 255 255
-5.82092 -22.741 34.5159  255 255 255
-5.31755 -19.657 35.4259  255 255 255
-5.30432 -23.1449 34.7394  255 255 255
-6.51813 -26.2955 36.1142  255 255 255
50.7848 1.11305 -6.50955  255 255 255
27.9806 58.6263 -90.4335  255 255 255
-43.2351 48.3279 -44.2637  255 255 255
48.6609 3.02094 -9.74843  255 255 255
-8.7143 -11.6678 34.1247  255 255 255
-2.69286 -14.3361 36.0252  255 255 255
58.773 -26.9685 -6.60925  255 255 255
53.4109 67.1591 -104.129  255 255 255
-11.8413 -17.4469 33.1449  255 255 255
-11.8982 -21.0068 32.9771  255 255 255
-32.2028 8.00921 -39.5595  255 255 255
57.9323 -21.1102 -4.67709  255 255 255
-8.34645 -22.422 34.2583  255 255 255
-3.41898 -58.89 34.8512  255 255 255
-8.02442 -22.0327 34.0525  255 255 255
-4.26184 -58.2513 33.5841  255 255 255
50.492 62.4508 -103.87  255 255 255
50.2029 60.8447 -103.761  255 255 255
-9.57621 -5.60756 30.5894  255 255 255
9.89362 -23.2192 33.1144  255 255 255
5.35112 -30.5869 37.5971  255 255 255
-20.1903 -15.1442 26.6857  255 255 255
1.75246 -16.2265 35.7788  255 255 255
-4.13053 -14.946 35.8735  255 255 255
-5.162 -14.5858 35.6528  255 255 255
36.337 -48.898 20.309  255 255 255
-8.0085 -14.6449 34.7953  255 255 255
-9.30712 -15.2501 34.431  255 255 255
-6.72133 -15.6806 35.3559  255 255 255
-10.5629 -14.7788 33.7498  255 255 255
-4.25574 -12.8882 35.6868  255 255 255
-4.24771 -12.8892 35.5443  255 255 255
-1.85729 -16.1582 36.1334  255 255 255
-22.0236 -21.4014 29.3237  255 255 255
-0.258346 -18.6174 35.9647  255 255 255
57.5293 -23.6699 -7.33196  255 255 255
51.5635 -2.1127 -6.25101  255 255 255
-10.7182 -14.6993 33.7048  255 255 255
-6.4812 -20.4714 35.0739  255 255 255
11.1208 -13.9238 31.8874  255 255 255
-3.45232 -9.41831 34.7782  255 255 255
0.448351 -9.36355 34.7715  255 255 255
47.4922 -2.25974 -15.9454  255 255 255
-13.3882 -23.7305 34.4302  255 255 255
53.0996 -12.7488 -10.1081  255 255 255
4.65767 -11.2368 34.4998  255 255 255
-7.05907 -20.2066 34.8708  255 255 255
44.9416 -37.597 6.72749  255 255 255
-21.5886 -56.035 32.4023  255 255 255
2.57103 -20.7036 35.1042  255 255 255
-20.1917 56.1202 -55.1763  255 255 255
58.2195 -21.011 -3.98503  255 255 255
-6.39804 -19.2902 35.2399  255 255 255
-12.6984 -17.4849 32.5417  255 255 255
-9.06802 -18.0456 34.4916  255 255 255
50.6533 2.27026 -5.90772  255 255 255
-8.22046 59.4628 -61.8811  255 255 255
10.9138 -37.7987 29.4746  255 255 255
-22.0297 -9.38308 20.3841  255 255 255
6.98987 -7.02885 31.6691  255 255 255
-4.8334 -10.3337 34.8685  255 255 255
-15.9174 -20.3722 32.5727  255 255 255
19.0507 17.8418 -53.7374  255 255 255
1.15437 -32.3277 37.9119  255 255 255
49.389 -5.45537 -14.0873  255 255 255
-44.5222 -7.30353 -21.5557  255 255 255
5.93713 -12.4768 34.3058  255 255 255
-11.1029 -29.4384 37.7314  255 255 255
-5.77312 14.0088 -47.6919  255 255 255
-23.4565 -34.4795 22.8363  255 255 255
-47.2454 -6.4838 -21.7008  255 255 255
4.82613 -12.7844 34.7478  255 255 255
49.0548 -41.7607 11.4075  255 255 255
57.3286 -26.1502 -6.71871  255 255 255
-30.4225 -56.1448 33.268  255 255 255
-5.15536 -10.8048 34.9621  255 255 255
49.7619 21.198 -35.652  255 255 255
-26.1533 -56.7129 33.4945  255 255 255
53.6661 -15.6313 -10.7085  255 255 255
-28.8313 -56.2549 33.1579  255 255 255
48.9678 -3.93361 -13.8594  255 255 255
-28.1935 -55.6704 32.5671  255 255 255
-28.7816 -55.5064 32.1619  255 255 255
-21.1759 -31.7764 27.3535  255 255 255
-12.5993 -21.7694 33.9234  255 255 255
-7.27233 -30.4752 38.5608  255 255 255
-15.962 -26.8324 34.9679  255 255 255
57.0317 -23.7846 -8.796  255 255 255
-9.35104 -36.5853 32.5652  255 255 255
20.7537 -21.6111 25.9731  255 255 255
-11.5555 -11.9184 32.6981  255 255 255
11.33 -22.6339 32.4418  255 255 255
55.3263 -21.1165 -11.2201  255 255 255
-4.42606 -29.9818 37.5701  255 255 255
50.1831 25.793 -31.4949  255 255 255
58.6284 -25.6198 -6.30732  255 255 255
57.8539 -24.2684 -7.02879  255 255 255
-5.16508 -10.1875 34.8918  255 255 255
-2.96117 -7.91392 34.0727  255 255 255
0.372272 -9.83308 35.0797  255 255 255
-16.631 -12.9371 28.8195  255 255 255
-21.9595 -12.669 24.1121  255 255 255
-0.0928505 -24.433 35.7342  255 255 255
-13.5369 54.3063 -62.3312  255 255 255
50.8891 21.5958 -32.7343  255 255 255
49.0488 25.0016 -34.831  255 255 255
50.0266 -5.04737 -12.4015  255 255 255
56.2377 -17.5177 -6.00592  255 255 255
-27.9525 -54.7653 31.4543  255 255 255
-75.196 5.42373 -33.6487  255 255 255
6.84335 -45.6963 26.1338  255 255 255
0.974258 -8.36902 34.3311  255 255 255
-0.709011 -8.29318 34.3964  255 255 255
-4.75649 -15.1643 35.7779  255 255 255
1.91636 -12.6479 35.6294  255 255 255
-0.761295 -13.7533 36.042  255 255 255
-0.254478 -9.19439 34.8042  255 255 255
-67.3495 32.877 -39.2757  255 255 255
-77.4785 28.6155 -36.346  255 255 255
-54.4662 36.8798 -45.8744  255 255 255
-75.0758 29.6802 -41.7379  255 255 255
-34.0116 33.537 -65.039  255 255 255
-4.33671 -9.3294 34.5501  255 255 255
-107.235 -11.4243 -12.7407  255 255 255
-76.1549 -11.5455 -14.9769  255 255 255
-62.5049 -8.67665 -18.7208  255 255 255
-71.014 0.538454 -28.9705  255 255 255
-62.8302 -8.33605 -19.486  255 255 255
-47.0103 13.2967 -44.6003  255 255 255
-41.5611 15.1986 -47.7653  255 255 255
-82.4126 -10.9696 -15.2984  255 255 255
-81.5223 -10.882 -15.2029  255 255 255
-76.0432 9.28446 -38.7688  255 255 255
-83.846 -8.14596 -17.584  255 255 255
-76.8562 8.01203 -36.8731  255 255 255
-83.2491 -9.26205 -17.3503  255 255 255
49.0219 38.4869 -27.0175  255 255 255
-28.7427 18.8993 -52.4944  255 255 255
-25.5663 18.1936 -51.2191  255 255 255
-63.4879 -11.7454 -14.4721  255 255 255
-34.1109 25.8406 -59.2948  255 255 255
-69.942 2.97229 -31.9167  255 255 255
-67.2078 32.8564 -39.5507  255 255 255
-57.7674 16.2478 -47.9438  255 255 255
-108.032 -6.77366 -16.954  255 255 255
-109.802 -16.1666 -5.80373  255 255 255
-108.473 -10.7746 -12.797  255 255 255
-44.5712 12.5782 -43.1219  255 255 255
3.16348 -12.7856 35.2847  255 255 255
20.0852 69.7705 -73.3681  255 255 255
-70.5973 33.6564 -33.5429  255 255 255
-63.5854 31.9575 -41.9486  255 255 255
37.743 -41.3431 11.2675  255 255 255
18.3316 63.0725 -82.5876  255 255 255
-76.3669 6.94212 -35.174  255 255 255
-76.4074 -10.9129 -15.5271  255 255 255
-70.5183 1.8879 -30.1715  255 255 255
15.4387 61.7597 -76.0036  255 255 255
10.609 60.0184 -72.8565  255 255 255
-33.237 -57.6477 34.8585  255 255 255
-5.55394 15.9456 -50.0038  255 255 255
-42.0767 53.576 -41.4105  255 255 255
-9.27243 -3.41336 29.2684  255 255 255
-12.6892 -1.03414 24.51  255 255 255
-41.6249 -56.5218 34.7526  255 255 255
26.8034 39.0025 -77.5226  255 255 255
20.3413 37.4616 -76.0703  255 255 255
27.5206 11.2816 -47.0218  255 255 255
5.7193 0.286484 22.4832  255 255 255
8.0498 -2.34424 27.4158  255 255 255
-16.6702 -5.03299 24.5845  255 255 255
12.3307 -21.897 31.4538  255 255 255
3.90933 -30.4032 37.6166  255 255 255
7.70902 -36.2069 32.954  255 255 255
39.6546 -41.108 11.0874  255 255 255
38.1362 -42.8461 13.9291  255 255 255
0.681816 -48.9581 29.5135  255 255 255
10.0805 -2.06527 25.4208  255 255 255
38.9709 -41.3736 11.4361  255 255 255
36.299 -45.1372 16.1195  255 255 255
-28.997 -55.5609 32.6891  255 255 255
44.06 -49.8828 21.1291  255 255 255
22.8592 -54.4131 27.5342  255 255 255
22.8592 -54.4131 27.5342  255 255 255
-21.8333 26.3361 -60.426  255 255 255
23.2157 22.5497 -58.8389  255 255 255
-10.4669 -2.10302 27.5273  255 255 255
-54.9262 -13.7643 -14.4759  255 255 255
-4.00785 -24.2335 35.5972  255 255 255
15.8422 -26.0476 31.5328  255 255 255
45.807 28.2963 -41.3874  255 255 255
8.699 -2.7174 27.6693  255 255 255
-19.157 -56.249 32.424  255 255 255
46.5252 49.0597 -91.2311  255 255 255
48.7383 44.4061 -86.4959  255 255 255
11.1048 -20.083 30.8369  255 255 255
-4.08569 -42.2267 29.9509  255 255 255
24.6613 -16.9646 20.3683  255 255 255
-31.8789 9.09951 -39.9619  255 255 255
-23.8515 -56.74 33.764  255 255 255
6.84431 -24.9717 35.4036  255 255 255
41.6026 -49.4648 23.1171  255 255 255
-51.1987 33.1973 -51.3429  255 255 255
-12.4941 -1.39995 25.0788  255 255 255
-4.56963 -31.1742 39.2519  255 255 255
4.5403 -42.4611 29.1255  255 255 255
3.38129 2.77114 21.5723  255 255 255
5.97469 -49.0812 29.1647  255 255 255
5.23232 -32.4298 37.6676  255 255 255
7.92124 -35.2272 33.6408  255 255 255
1.79075 1.68639 20.5514  255 255 255
12.3994 -37.3761 29.2123  255 255 255
23.6983 -22.5973 26.6663  255 255 255
10.573 -38.2093 29.8822  255 255 255
21.004 -19.6459 23.8941  255 255 255
-15.8736 -43.3145 25.2453  255 255 255
-18.2553 -34.7566 28.8449  255 255 255
6.19779 0.731472 23.2877  255 255 255
9.8289 -20.7098 32.5751  255 255 255
11.9354 -39.2321 27.8413  255 255 255
11.8724 -20.4193 29.9373  255 255 255
22.671 -36.0371 17.5307  255 255 255
-8.00811 -45.7401 31.4915  255 255 255
20.6182 -25.3233 30.071  255 255 255
-76.2514 -0.162095 -28.0194  255 255 255
-79.0543 8.6623 -37.8181  255 255 255
-7.28106 56.4671 -64.4884  255 255 255
-2.25217 64.4049 -61.2161  255 255 255
21.8648 66.0566 -78.3564  255 255 255
-74.0783 16.4348 -46.4296  255 255 255
6.74947 -29.2632 35.8022  255 255 255
4.12867 -20.3734 34.9407  255 255 255
11.1736 -26.6198 32.813  255 255 255
16.7175 -24.5872 29.9013  255 255 255
48.2792 -13.7707 -19.8516  255 255 255
18.4898 -24.2863 29.2065  255 255 255
-6.87139 -27.9183 35.5874  255 255 255
7.86279 -2.01714 26.7382  255 255 255
-10.8672 -27.0502 34.8357  255 255 255
-4.48574 -28.4928 36.1484  255 255 255
-33.1908 -53.0643 29.8866  255 255 255
-14.0367 -29.3804 37.1821  255 255 255
16.4358 29.9813 -66.6083  255 255 255
-3.13058 -20.7557 35.3803  255 255 255
-104.081 -11.0299 -13.1051  255 255 255
-107.075 -5.75366 -18.4233  255 255 255
-102.982 -12.5429 -11.3193  255 255 255
-26.4258 18.7251 -51.8539  255 255 255
-11.3187 -13.0731 33.1991  255 255 255
-75.0593 8.19789 -35.7717  255 255 255
54.9247 -20.4319 -10.6447  255 255 255
48.1087 -38.1753 7.9553  255 255 255
47.5866 -1.15769 -15.5972  255 255 255
-20.1314 -56.3509 33.264  255 255 255
16.8633 -40.5653 24.4575  255 255 255
-1.75651 -41.002 30.4674  255 255 255
-32.1425 -55.4263 32.4501  255 255 255
2.7787 -30.3014 37.5403  255 255 255
-19.437 -58.7039 35.6442  255 255 255
49.0111 -48.3618 19.455  255 255 255
51.602 -46.7339 21.6627  255 255 255
47.8522 -46.093 15.8673  255 255 255
49.5044 -37.7355 7.06396  255 255 255
-3.0281 -59.2598 34.6196  255 255 255
55.5819 -46.884 17.8943  255 255 255
-33.5854 -24.0367 8.72196  255 255 255
-39.9775 -37.7224 12.3533  255 255 255
-18.8248 -58.6875 35.2548  255 255 255
50.2986 -40.7594 9.56932  255 255 255
-17.5457 -59.0249 35.7177  255 255 255
15.1358 -39.0803 25.0229  255 255 255
-70.0878 -52.8302 33.4641  255 255 255
-34.3813 -56.5147 34.0139  255 255 255
21.4109 -22.1138 26.5998  255 255 255
49.7633 36.2828 -27.2778  255 255 255
-8.38065 1.85374 22.5539  255 255 255
-35.5541 5.56821 -36.4292  255 255 255
0.763794 -8.89481 34.588  255 255 255
6.89241 -10.1279 32.9176  255 255 255
-26.2312 -18.7342 26.7705  255 255 255
-21.5711 -24.3168 32.6977  255 255 255
0.43064 -32.3758 37.8833  255 255 255
-14.9443 -34.9238 31.8617  255 255 255
14.7378 -31.2761 32.668  255 255 255
-23.5104 -31.1286 25.4296  255 255 255
12.3353 -38.9588 27.5705  255 255 255
-16.6736 -5.08238 24.5741  255 255 255
-17.1949 -6.20523 24.8883  255 255 255
-17.8194 -8.92092 25.9636  255 255 255
-11.7089 -22.5505 34.6464  255 255 255
14.3036 -34.5621 29.9329  255 255 255
-19.2207 -9.50355 23.9486  255 255 255
-54.6664 -30.4045 4.47548  255 255 255
9.64133 -38.197 29.8874  255 255 255
-48.0288 -10.0227 -17.7358  255 255 255
49.3207 -5.86666 -13.7801  255 255 255
-9.31047 -21.595 33.7712  255 255 255
9.90143 -23.2259 33.0112  255 255 255
-18.1915 -12.627 26.8163  255 255 255
1.56404 -31.9889 38.0567  255 255 255
-4.56928 -31.1942 39.1028  255 255 255
9.51357 -36.7847 31.0159  255 255 255
12.3353 -38.9588 27.5705  255 255 255
-8.51512 -24.2324 36.1994  255 255 255
-2.30277 -17.287 35.9428  255 255 255
-53.8597 -30.8641 4.53713  255 255 255
-38.5489 -52.8485 29.7004  255 255 255
-15.7882 -25.2672 33.4895  255 255 255
-28.4495 -16.4958 24.3378  255 255 255
44.6394 58.6867 -102.087  255 255 255
6.15307 49.4589 -80.8367  255 255 255
18.2098 35.0548 -73.241  255 255 255
-57.149 26.4394 -47.4864  255 255 255
-56.9304 25.5523 -48.436  255 255 255
-57.4995 25.2998 -49.4612  255 255 255
-58.2244 24.9999 -49.2277  255 255 255
45.7371 21.6435 -42.9806  255 255 255
-59.7216 24.0859 -47.3455  255 255 255
-65.4978 23.7557 -49.6528  255 255 255
46.5666 17.0809 -43.9088  255 255 255
-4.14254 18.5698 -52.8454  255 255 255
45.846 16.7546 -43.7173  255 255 255
47.2441 16.4714 -43.0366  255 255 255
47.6933 15.4138 -42.0954  255 255 255
29.5643 16.9666 -53.269  255 255 255
14.8803 16.9958 -52.5658  255 255 255
48.8017 14.7663 -40.8045  255 255 255
47.3176 14.1653 -43.7217  255 255 255
47.4198 13.7761 -43.0463  255 255 255
-55.0145 12.5782 -43.5191  255 255 255
-44.9632 11.0565 -42.3545  255 255 255
-43.5477 10.9424 -41.8874  255 255 255
-38.8247 9.65711 -41.3482  255 255 255
-30.5895 9.1446 -40.6692  255 255 255
-38.7349 9.12005 -40.0732  255 255 255
5.70631 0.313692 22.7806  255 255 255
51.2363 4.06897 -39.7396  255 255 255
47.6035 -1.96234 -15.4453  255 255 255
-25.8035 -5.21923 10.9784  255 255 255
-8.41436 -6.59024 31.9715  255 255 255
-50.0789 -5.63903 -22.473  255 255 255
2.45519 -9.13673 34.3844  255 255 255
-50.0254 -7.37942 -20.8108  255 255 255
9.4837 -9.91043 31.4846  255 255 255
48.9191 -14.5692 -19.0647  255 255 255
50.7138 -17.8768 -15.3508  255 255 255
-57.432 -17.1215 -9.28934  255 255 255
-58.2214 -17.6994 -8.70997  255 255 255
10.7189 -22.2042 32.0418  255 255 255
15.4816 -25.4171 30.844  255 255 255
46.9939 -37.8649 6.72507  255 255 255
50.5305 -38.3766 7.16653  255 255 255
50.0179 -40.0904 9.07498  255 255 255
48.552 -42.3383 12.0767  255 255 255
-15.6209 -44.8933 29.2325  255 255 255
33.904 -49.7818 21.7036  255 255 255
35.0294 -50.3543 21.7854  255 255 255
30.3357 -52.3707 24.7736  255 255 255
-26.467 -57.0514 34.0731  255 255 255
-19.2787 -57.275 33.6805  255 255 255
-22.5037 -57.6972 34.3642  255 255 255
-17.84 -58.7119 35.4716  255 255 255
-17.547 -59.0164 35.7197  255 255 255
46.7444 59.3231 -103.123  255 255 255
45.2554 58.7305 -101.722  255 255 255
16.4005 48.6896 -88.2581  255 255 255
20.5146 45.8778 -85.2141  255 255 255
16.3775 36.8454 -75.0654  255 255 255
16.3441 36.8893 -75.1678  255 255 255
24.9423 31.3909 -69.9819  255 255 255
-56.3739 27.5806 -48.1062  255 255 255
46.1183 21.8743 -43.0909  255 255 255
-5.07663 18.684 -53.2913  255 255 255
49.8743 15.3988 -34.8751  255 255 255
-73.9676 17.1522 -47.6503  255 255 255
49.6422 13.6846 -39.8048  255 255 255
-35.9059 15.3652 -47.6617  255 255 255
48.6162 11.9293 -43.6201  255 255 255
-42.4734 12.666 -43.7933  255 255 255
48.249 10.9938 -43.4219  255 255 255
46.3795 9.93439 -46.3242  255 255 255
-43.3937 10.1003 -40.8859  255 255 255
-31.8995 8.71459 -40.1735  255 255 255
51.3422 -10.1221 -11.0903  255 255 255
-43.0122 -9.39064 -18.9469  255 255 255
54.1907 -15.2594 -8.26398  255 255 255
51.8483 -15.4404 -14.4155  255 255 255
41.8891 -26.9336 -4.83666  255 255 255
-17.6783 -23.4975 31.1903  255 255 255
-50.3513 -29.2234 3.91508  255 255 255
40.5028 -32.6433 2.08549  255 255 255
6.49317 -27.6508 34.8632  255 255 255
44.0877 -36.6254 6.26148  255 255 255
-56.1948 -36.9376 13.1006  255 255 255
37.2022 -48.1084 19.0644  255 255 255
37.2022 -48.1084 19.0644  255 255 255
47.2034 -48.8814 20.0451  255 255 255
37.5829 -48.7379 20.2742  255 255 255
-18.015 -55.0166 31.1029  255 255 255
-22.076 -56.2152 32.6718  255 255 255
-20.5518 -58.1034 34.6624  255 255 255
18.7489 52.93 -87.4404  255 255 255
16.2653 43.2989 -83.0507  255 255 255
50.4385 27.872 -30.5381  255 255 255
-74.4115 16.8756 -47.1693  255 255 255
-29.6125 15.721 -48.0694  255 255 255
48.4003 10.5428 -42.5385  255 255 255
-40.7844 7.84593 -38.8171  255 255 255
20.2554 -12.3776 19.839  255 255 255
25.8872 -12.6705 15.0261  255 255 255
50.3164 -15.5276 -18.5747  255 255 255
-50.0528 -30.3231 5.39244  255 255 255
-51.0156 -30.423 5.48044  255 255 255
-8.49335 -28.3294 36.149  255 255 255
49.6874 -36.8359 6.77354  255 255 255
46.9898 -37.476 6.87723  255 255 255
51.2976 -42.1708 11.8117  255 255 255
48.6449 -43.1585 13.0463  255 255 255
30.757 -48.8852 20.8772  255 255 255
-25.0748 -56.2478 32.8806  255 255 255
-22.4601 -57.395 34.117  255 255 255
-22.7601 -58.0175 35.0712  255 255 255
-2.89954 -59.0358 34.2271  255 255 255
18.6607 50.1164 -89.5121  255 255 255
18.4471 48.843 -88.0227  255 255 255
46.8819 39.8796 -80.6212  255 255 255
43.4424 35.6028 -76.1658  255 255 255
-53.6593 31.3436 -52.0521  255 255 255
-55.1659 26.7982 -49.4585  255 255 255
-32.1755 10.5215 -41.7276  255 255 255
-36.9434 10.5014 -42.0813  255 255 255
-31.3774 8.26284 -40.1444  255 255 255
-35.7437 7.69067 -38.2815  255 255 255
-33.1852 7.5651 -38.9204  255 255 255
-1.0439 -30.2039 37.5087  255 255 255
47.6114 -37.1409 6.01668  255 255 255
57.6847 -44.2751 14.5055  255 255 255
44.0181 -44.8374 14.5968  255 255 255
2.48597 -42.7029 29.0589  255 255 255
37.7099 -48.5111 19.6132  255 255 255
37.2737 -49.4297 21.2698  255 255 255
53.3194 44.1227 -88.3962  255 255 255
47.8983 42.0113 -82.9189  255 255 255
-39.1374 8.02967 -39.1243  255 255 255
-59.7788 24.9537 -48.8445  255 255 255
-59.7788 24.9537 -48.8445  255 255 255
-4.25241 -58.806 33.7504  255 255 255
-59.4243 28.1125 -48.4299  255 255 255
-58.1297 26.3488 -46.5662  255 255 255
-73.0244 21.8366 -48.2589  255 255 255
-56.335 26.2854 -48.2939  255 255 255
13.4813 -35.6916 29.2448  255 255 255
50.5813 4.74241 -5.94316  255 255 255
13.7782 -19.0419 29.8324  255 255 255
-28.9952 -51.7631 28.2439  255 255 255
-32.1037 -59.4513 36.7701  255 255 255
-4.80072 57.7676 -65.8068  255 255 255
17.9408 -42.2409 25.7226  255 255 255
45.0729 74.5544 -89.9309  255 255 255
-36.1325 32.0888 -64.2178  255 255 255
12.8324 65.2101 -72.0129  255 255 255
39.1865 73.4376 -87.1533  255 255 255
18.6373 -16.2269 24.3337  255 255 255
9.64655 -13.7698 32.5462  255 255 255
2.90749 -7.2871 33.381  255 255 255
-68.9178 -45.8222 24.874  255 255 255
-6.95132 -19.7053 34.9663  255 255 255
51.4766 66.9915 -99.8969  255 255 255
-49.0349 31.9862 -56.3246  255 255 255
47.0747 74.6792 -90.4677  255 255 255
52.9002 67.1838 -102.02  255 255 255
41.4646 69.0747 -91.4935  255 255 255
-9.84763 -19.287 33.9201  255 255 255
7.05239 -10.7066 33.3687  255 255 255
28.4535 59.3872 -89.4448  255 255 255
9.68462 57.9846 -77.0454  255 255 255
-57.5492 46.7019 -35.5196  255 255 255
9.4777 -14.0864 32.8053  255 255 255
45.8494 63.6276 -98.8531  255 255 255
18.8133 37.5106 -75.9946  255 255 255
46.8071 66.3727 -97.4383  255 255 255
32.8451 69.8099 -83.8932  255 255 255
0.664883 -12.7735 35.7322  255 255 255
18.0022 60.6736 -81.9522  255 255 255
-8.08948 -10.5683 34.3146  255 255 255
6.17337 -29.2704 35.9303  255 255 255
23.4734 52.5443 -92.0485  255 255 255
23.3445 57.5506 -87.8041  255 255 255
10.5973 64.8322 -72.2061  255 255 255
4.72504 61.2152 -70.7913  255 255 255
16.3525 66.8549 -73.8184  255 255 255
22.8354 56.9322 -88.1939  255 255 255
45.9128 73.5419 -90.3742  255 255 255
46.5353 74.0665 -90.1467  255 255 255
26.2226 65.6768 -81.0808  255 255 255
-3.13217 -20.7551 35.3509  255 255 255
-8.79166 -24.831 35.9172  255 255 255
40.8231 -31.9636 0.435645  255 255 255
-58.1315 -35.1944 11.0479  255 255 255
43.353 36.6618 -77.0924  255 255 255
15.7684 61.0423 -76.7565  255 255 255
25.5025 39.2305 -79.1768  255 255 255
46.7379 22.6376 -42.7656  255 255 255
-30.1107 49.6795 -53.5627  255 255 255
-22.663 -8.02701 18.8156  255 255 255
-16.9684 -14.84 28.8902  255 255 255
-7.48909 55.6424 -64.9113  255 255 255
-14.6181 -27.4914 35.4476  255 255 255
-10.9571 -30.0904 37.5552  255 255 255
-11.3511 -6.80076 30.6309  255 255 255
-110.265 -14.9537 -7.12217  255 255 255
-108.997 -16.9532 -4.94801  255 255 255
-110.673 -15.3108 -6.83063  255 255 255
-107.196 -19.5214 -2.40942  255 255 255
-53.9157 8.8565 -39.3327  255 255 255
-48.8254 10.9481 -41.5986  255 255 255
-106.05 -6.83477 -16.6479  255 255 255
-68.4129 -2.76771 -25.3633  255 255 255
-109.554 -15.677 -6.45217  255 255 255
-64.8389 -7.80721 -19.7226  255 255 255
-64.8389 -7.80721 -19.7226  255 255 255
-60.72 -7.77256 -19.6341  255 255 255
-75.4524 25.2575 -46.6377  255 255 255
-63.3504 -13.9097 -12.4549  255 255 255
42.0797 -29.571 -2.19417  255 255 255
-11.8336 -7.51975 30.7943  255 255 255
-111.654 -14.227 -7.94004  255 255 255
-119.422 50.0736 -76.88  255 255 255
25.7409 11.1619 -46.4898  255 255 255
30.4424 15.094 -50.9687  255 255 255
24.6907 35.901 -74.7085  255 255 255
47.0214 68.56 -95.4841  255 255 255
-44.7845 -26.2018 0.401519  255 255 255
-24.0197 16.2414 -49.8447  255 255 255
